x y z
-3.496058 -3.574574 0.803167
3.884400 3.148243 1.639062
1.152405 4.865384 9.066928
-2.924134 -4.055791 18.241982
-4.832211 -1.284421 18.650772
4.811876 1.358620 18.959547
3.149475 3.883401 3.491293
-2.436515 -4.366165 14.965779
-4.885266 1.064975 8.886708
3.300164 -3.756184 17.348851
4.874063 1.115130 16.372075
-2.914081 4.063020 19.944374
-3.541093 -3.529967 12.893813
-2.080232 4.546717 2.606665
4.786975 1.443909 11.884843
-4.994946 -0.224760 0.616201
-0.489080 -4.976023 13.785114
-4.246866 2.638963 4.278518
3.068421 3.947758 14.126080
-1.158719 -4.863884 5.438318
-4.911311 0.937561 14.618145
4.991110 0.298021 2.685166
0.242687 4.994107 15.359881
4.884605 1.068005 0.106772
1.918943 4.617105 16.778889
3.650770 -3.416413 8.560954
0.051559 4.999734 19.628472
-4.771084 -1.495581 2.849248
4.420671 -2.336166 16.628344
-1.058288 -4.886719 6.143798
3.739770 -3.318753 17.443615
-4.382782 2.406495 14.355455
-3.065253 3.950218 6.289712
-1.681979 -4.708604 2.197087
2.748527 4.176793 2.624982
-1.788058 -4.669352 18.380922
-4.929500 0.836680 19.090236
-4.979697 0.450134 14.251813
-1.029572 -4.892850 11.469853
-4.429905 -2.318607 19.002341
3.882812 3.150202 4.436089
1.455048 4.783601 18.093298
-3.398143 -3.667782 16.071116
3.815903 3.230926 0.563458
4.017846 2.976057 4.158428
-0.829689 4.930681 1.973999
-4.670144 -1.785990 15.342747
0.491027 -4.975831 15.308303
-4.917548 -0.904282 0.107823
-2.046871 4.561833 7.859983
3.891112 3.139943 15.862086
4.818347 -1.335488 8.466973
4.998527 -0.121375 0.191282
-4.768331 -1.504333 13.170562
-1.215133 -4.850098 12.973308
3.537901 -3.533165 5.292252
2.278084 4.450880 4.956293
1.156483 4.864416 7.802773
-4.124218 -2.826805 18.544698
3.062246 3.952549 2.804908
-2.496382 -4.332214 8.723605
-3.081622 3.937462 18.128330
-0.817973 -4.932638 17.579839
4.977651 0.472217 6.027758
3.216141 3.828373 0.213204
-1.633291 -4.725713 11.466615
0.946568 4.909583 17.633699
-4.988310 -0.341705 17.182134
3.213005 3.831005 15.174918
-1.863709 4.639676 3.125480
1.006086 4.897733 17.891003
2.551697 -4.299865 0.617109
-4.998408 -0.126170 19.987140
-2.379843 4.397311 10.661532
-4.440563 -2.298129 15.990120
3.878409 -3.155621 2.670425
3.397511 -3.668367 13.037970
0.360921 4.986957 19.247131
-4.566608 2.036196 13.873016
-4.153812 2.783136 1.081151
-4.589743 1.983496 0.581112
4.790118 -1.433448 5.822421
-4.368998 2.431431 0.631979
-3.979353 3.027334 19.197264
0.291567 -4.991492 14.633897
4.777927 1.473571 11.788098
-2.752025 -4.174489 10.949223
1.495326 -4.771163 10.719711
1.793900 -4.667111 12.914865
3.664352 -3.401842 3.715493
-4.233277 2.660708 13.773320
0.520382 4.972847 13.607034
-4.947986 0.719331 17.763993
-4.311613 2.531796 8.469828
-4.626364 -1.896513 4.507898
-2.177411 4.500987 6.641185
4.999910 -0.030012 5.663286
-4.998314 -0.129825 0.609446
-4.699253 1.707929 12.851525
-2.968870 -4.023159 7.642329
4.692664 -1.725950 8.150551
-2.004621 -4.580556 17.793898
-4.646385 1.846918 10.904175
2.059847 4.555988 0.010746
-4.982319 -0.420117 4.090045
4.696192 1.716328 17.657184
-4.287440 -2.572519 11.049882
4.898053 -1.004528 15.631758
-4.982117 -0.422504 17.276935
-0.813920 4.933309 2.415686
2.745611 -4.178710 13.451561
-4.798896 -1.403781 3.229152
-3.362755 3.700253 15.183532
3.892419 3.138323 16.922988
4.532617 -2.110779 9.853591
4.976784 0.481267 16.904360
-3.685573 3.378838 16.524694
4.842078 -1.246707 6.056282
-2.721662 -4.194348 0.618785
-3.472387 3.597573 4.785764
-2.428738 -4.370495 13.621806
3.914781 -3.110384 2.350756
2.349901 4.413385 8.120434
-4.991704 -0.287912 10.597967
1.602619 -4.736202 2.640716
4.974619 -0.503156 4.327147
3.506284 3.564544 6.767003
4.561662 -2.047252 8.254569
-2.980837 4.014301 0.013504
-4.781480 -1.462002 11.120249
4.680111 1.759704 12.688804
-4.428835 2.320651 6.519627
-4.593127 1.975649 19.587890
-4.057478 2.921793 17.269475
0.962799 -4.906426 4.583124
1.656034 -4.717791 3.039312
-4.125577 2.824821 5.469909
4.967752 -0.566958 9.236308
-2.444793 -4.361535 9.848136
0.686552 -4.952640 7.572836
3.228220 3.818192 8.507539
-4.192022 2.725243 0.767779
4.323039 -2.512238 9.072250
-3.780405 3.272390 7.742369
3.568618 -3.502137 16.797112
-2.023869 -4.572084 5.458336
-4.347510 -2.469646 9.219655
-3.977155 -3.030221 17.891937
-0.329060 4.989160 0.580774
-3.541463 -3.529595 19.848370
1.287538 -4.831381 6.040307
-4.682557 -1.753186 12.774481
1.428929 -4.791468 4.538533
1.587212 -4.741388 8.064477
4.996420 -0.189175 14.584186
4.239522 2.650746 11.716217
-4.731446 -1.616608 6.494626
-2.029660 -4.569516 9.324241
-2.969550 -4.022657 0.933036
0.303005 -4.990810 0.885608
-4.372195 -2.425677 9.911595
-2.463908 4.350765 11.293615
0.779641 4.938842 16.610136
-4.078982 2.891695 5.852608
-1.492590 4.772020 1.250842
-3.084490 -3.935216 13.115103
4.827968 -1.300277 17.439360
-4.920339 0.888971 14.601782
-4.053627 -2.927133 16.581978
-3.644721 -3.422866 16.039542
0.184714 -4.996587 12.230683
-4.352174 2.461418 5.838555
3.460297 -3.609203 8.196771
4.654121 -1.827336 12.937059
2.859392 4.101692 3.660613
4.976656 -0.482595 18.100563
-4.835835 1.270708 3.902202
-2.575094 -4.285894 15.022560
-4.638171 -1.867449 15.456305
2.592832 4.275187 2.903252
-2.518200 4.319568 5.679878
-4.229868 2.666123 13.035125
-4.893018 -1.028772 13.835154
1.452530 4.784366 15.555716
-0.681117 -4.953391 17.793623
0.419678 4.982356 9.604937
4.871591 1.125878 15.298064
-4.245744 2.640768 11.498371
-4.988870 -0.333436 19.410380
-2.276361 4.451761 12.796753
4.970701 -0.540493 11.935516
1.705574 -4.700108 13.410483
1.345620 -4.815528 9.423017
-3.362497 3.700488 16.651361
4.243562 -2.644274 8.817883
-0.599080 4.963981 15.408952
-0.235821 -4.994436 14.744374
-0.430088 -4.981468 19.068807
-0.874827 4.922873 8.565481
-3.886534 -3.145609 19.631418
4.530499 -2.115320 8.076285
1.900531 -4.624714 14.803972
3.977176 3.030193 7.259475
1.888191 4.629766 19.959983
1.613484 4.732512 0.971115
4.526020 -2.124886 10.520341
4.981433 0.430491 13.173480
-1.287719 -4.831333 19.743943
3.424774 -3.642928 18.975108
-1.987549 4.587990 10.533837
4.386118 2.400410 10.441504
3.423384 3.644234 19.362418
1.364901 -4.810098 11.147803
-4.954028 -0.676465 3.078061
-2.584318 -4.280339 5.613476
1.833933 4.651526 15.900552
2.205415 -4.487332 15.933351
-4.361200 2.445391 13.981096
-0.028319 4.999920 10.400579
-4.988709 -0.335838 9.330697
-4.531917 2.112281 17.575336
4.951704 -0.693271 15.081892
-4.930940 0.828151 19.904009
0.460974 4.978705 3.340717
-4.741422 -1.587111 14.209025
1.260777 -4.838434 2.126239
4.629495 1.888855 13.149686
-4.807895 1.372643 10.451004
-3.272232 3.780542 5.302684
-4.854263 1.198386 16.396611
4.380567 2.410525 2.849837
4.901877 -0.985698 3.760688
0.581421 4.966080 13.534332
-4.845817 1.232096 12.231709
-2.747997 4.177142 18.781467
-1.147676 4.866502 1.061164
3.749774 3.307445 2.710990
-2.547563 4.302316 1.464923
-1.570251 -4.747032 7.160252
3.400405 -3.665685 2.845557
-3.733255 -3.326080 9.880417
-4.998125 -0.136903 5.114685
-0.853330 4.926645 3.900855
4.466892 -2.246524 3.530676
-0.698107 4.951025 0.829348
-3.915368 -3.109646 13.643148
-0.564601 -4.968020 9.532660
-4.936779 0.792597 12.609255
-1.189923 4.856345 8.046448
-4.980144 0.445163 9.012107
4.617734 -1.917429 15.672897
-0.984360 4.902146 16.695937
1.560290 -4.750315 6.939873
-4.326356 -2.506520 14.527161
-2.942008 -4.042844 1.989472
-1.563565 4.749238 17.224685
-4.198196 2.715723 7.621127
-2.763721 4.166755 19.720984
1.052032 -4.888070 10.887732
3.353497 -3.708646 3.699286
0.856290 4.926131 1.270756
-2.148579 -4.514821 12.605541
2.364197 4.405743 16.415133
4.337035 2.487997 0.295449
3.569924 3.500806 9.578404
2.958425 -4.030846 4.461369
3.965211 3.045833 10.826461
-4.784151 -1.453236 12.188164
-2.984642 -4.011473 5.633619
2.393017 4.390156 0.884962
4.943025 0.752662 8.814131
4.053950 -2.926686 10.847519
1.158087 -4.864035 16.173648
-4.952697 0.686146 3.525799
4.707152 1.686038 10.530561
4.368768 2.431844 13.985160
4.862744 1.163495 11.460166
4.539375 -2.096204 10.690832
-0.229510 -4.994730 5.131060
-0.275236 -4.992419 9.727711
-4.771897 -1.492985 18.031411
-3.942355 -3.075360 7.341073
4.964543 -0.594403 18.345538
-2.012085 4.577282 13.996311
-4.974632 -0.503028 9.452401
3.885280 3.147157 18.696756
-3.827326 -3.217387 5.946030
-4.882681 -1.076765 11.496553
4.968247 -0.562602 8.683879
-4.498242 2.183076 4.985314
-1.976055 4.592952 3.375157
-4.789057 -1.436987 17.285848
4.209609 -2.697997 2.677079
0.321458 -4.989656 11.154477
-2.584087 4.280478 12.403479
-2.205238 -4.487418 12.197518
-2.045685 -4.562365 0.264388
-4.869077 1.136700 17.544681
4.976939 -0.479669 1.667858
4.766461 1.510247 7.235517
-4.457756 -2.264599 15.125675
3.097729 3.924802 3.771986
0.229494 -4.994730 4.924060
4.980641 0.439558 12.192419
3.700113 -3.362910 14.848576
-4.886134 1.060985 6.302346
-4.624612 -1.900781 10.853926
0.771288 4.940153 18.599682
-1.280073 4.833365 0.430879
0.054547 -4.999702 9.365733
-1.142570 -4.867703 4.115530
-4.970777 0.539793 15.024573
-1.076795 4.882675 14.991279
2.643892 4.243800 19.335320
-1.048073 4.888920 2.172918
2.014781 4.576096 0.664675
1.865896 4.638797 3.279814
-4.908969 0.949751 19.360377
-2.302682 -4.438204 0.502365
1.624884 -4.728610 16.932992
-4.379093 2.413201 16.270926
4.800690 -1.397633 13.247686
1.347258 -4.815070 14.781237
4.758007 1.536675 11.235491
-1.242151 -4.843249 16.192379
1.441932 -4.787571 4.130342
-3.344608 3.716665 11.768214
-1.999864 4.582635 0.359838
-4.997859 -0.146316 14.139074
-4.724120 1.637893 16.004227
-4.696262 -1.716137 15.233966
-4.004317 2.994235 4.788413
-3.648448 3.418892 17.928676
-3.811593 -3.236010 16.303179
-3.330666 3.729164 9.015297
3.382030 3.682645 15.729085
-2.443200 -4.362428 19.357266
-4.987968 -0.346664 16.876422
3.678397 3.386650 3.935396
-3.098449 3.924235 18.191896
-3.583982 3.486413 3.152254
-4.971060 0.537181 10.107297
-4.698837 1.709074 6.667900
-4.147520 -2.792505 14.805238
-1.293559 -4.829773 2.185356
3.452785 -3.616390 4.243408
-4.480039 -2.220192 3.820237
3.080368 3.938443 6.023937
0.574748 4.966857 12.900437
-4.067979 2.907154 9.329133
-3.259479 3.791543 11.453094
4.999559 0.066390 6.426815
4.992863 -0.267060 0.563070
0.273992 -4.992487 13.620172
-4.876311 -1.105256 10.152890
4.941309 0.763846 8.727858
-4.554932 -2.062183 15.126632
-4.835036 1.273744 3.852367
-4.134971 2.811052 3.670656
-4.968274 0.562361 0.952656
2.860307 -4.101054 10.629810
-2.853021 -4.106126 4.545328
3.684004 -3.380550 17.796713
-2.827446 4.123779 4.003135
-4.820173 -1.328882 17.714699
3.670301 -3.395422 4.228594
-0.304432 -4.990724 8.750132
1.917291 -4.617791 10.141071
-0.397518 4.984173 4.588449
4.457048 -2.265992 6.386609
-4.999402 0.077303 17.607034
-4.944195 -0.744942 15.829931
-4.333298 2.494499 6.735221
-1.070959 -4.883958 4.315685
3.582248 3.488195 14.002738
-4.619655 -1.912797 19.983336
1.406776 4.798019 11.677648
2.418133 4.376372 15.315976
-0.037357 -4.999860 8.444260
4.602695 1.953252 12.220461
4.926267 0.855506 6.198471
-4.894049 -1.023856 3.339901
-2.421270 -4.374637 12.961741
-0.369832 -4.986304 5.911506
3.479824 -3.590379 2.645964
-4.912728 0.930110 18.011017
2.497848 4.331369 4.532708
-1.430041 -4.791136 14.819159
-0.658313 4.956473 13.231564
4.996818 -0.178343 10.433594
2.837950 4.116557 1.097031
-4.988889 0.333145 10.973219
-3.672734 3.392790 6.584123
4.454292 -2.271406 0.401721
2.632559 4.250839 5.124987
4.484668 -2.210825 14.916111
0.528196 -4.972023 18.358415
3.854900 -3.184297 16.999733
4.945170 0.738438 8.330842
-1.313261 4.824453 1.726149
-4.854378 -1.197922 13.249689
-4.238138 2.652958 10.095724
-0.303748 -4.990765 15.813347
-2.948414 4.038174 11.107013
-2.181988 -4.498770 6.671492
-0.434865 -4.981053 14.937385
-0.100279 -4.998994 18.680500
-4.395895 2.382458 1.177530
-4.660357 1.811374 11.601627
-3.794035 3.256578 0.788830
4.903607 0.977056 10.551399
-4.845107 1.234885 5.884523
-4.779486 1.468506 8.297721
-3.310178 -3.747362 7.766613
3.799384 -3.250335 4.018053
1.002239 -4.898522 1.563392
3.731232 -3.328349 8.778237
2.902395 -4.071376 4.202125
-4.150809 2.787612 5.241431
4.596127 1.968658 8.006944
-4.818181 -1.336088 5.372927
-4.995217 -0.218653 3.891756
-2.639951 4.246253 7.386058
2.095299 4.539793 9.875380
-1.203113 4.853094 15.873345
4.582417 -2.000364 9.269741
3.292008 -3.763334 11.917971
1.710785 4.698214 8.833367
-4.586360 1.991308 12.671545
2.502423 -4.328727 19.893623
4.945648 0.735234 3.797411
3.349001 -3.712707 6.793173
3.614646 3.454610 1.663658
3.283373 3.770870 7.481010
0.379861 4.985550 1.608314
4.563134 2.043969 11.089625
0.890506 -4.920061 6.961158
0.501785 -4.974757 6.869148
-4.039121 -2.947117 0.153066
-0.954012 4.908142 10.815228
-2.291650 -4.443911 15.747181
4.002446 2.996736 0.605362
0.023447 4.999945 6.929316
4.958752 -0.640924 10.228542
0.380819 4.985477 19.319880
-4.990077 -0.314856 17.647378
-0.157271 4.997526 0.735606
1.390176 4.802854 16.163761
-3.630534 -3.437910 19.808093
-3.851978 3.187831 9.299581
-2.058204 4.556731 18.416049
-2.839886 4.115221 9.866489
3.885519 -3.146862 7.774117
-4.788686 1.438225 12.154420
3.452181 3.616967 1.582439
-1.612542 4.732833 8.547745
-3.415230 3.651877 11.342280
-2.086792 4.543710 5.994701
4.937425 0.788566 9.146105
-4.235041 2.657899 2.832995
-2.596473 4.272976 2.515105
-4.197248 2.717187 11.235449
4.861758 -1.167610 8.755652
4.980163 -0.444942 7.071766
0.924341 4.913817 7.049144
-2.475648 4.344096 12.146467
1.859633 4.641311 6.536372
-4.938521 0.781670 12.762125
1.534703 -4.758644 12.153924
-4.968428 0.560998 13.172442
-2.414507 4.378374 13.899965
-1.215585 -4.849985 12.775231
4.121022 -2.831462 4.198992
-4.990548 -0.307294 7.232103
1.311422 4.824953 2.991934
4.768767 -1.502952 12.678342
2.845319 4.111467 9.202271
-4.375855 -2.419069 11.705426
-1.520770 4.763114 2.917208
-1.221175 -4.848580 10.040998
-4.955868 0.662849 4.415419
4.155490 -2.780630 3.696246
-4.829306 -1.295299 9.140047
2.611608 -4.263743 18.465905
-4.515314 -2.147543 6.882930
4.926523 0.854031 14.263171
1.304361 -4.826867 19.156183
4.569086 2.030628 10.588448
2.927072 -4.053671 5.968451
-3.027810 3.978991 16.230357
-1.808976 -4.661288 10.781581
-0.630515 4.960086 3.319535
1.594310 4.739006 11.965137
-4.687190 -1.740762 18.552366
-1.148171 -4.866385 12.506682
1.344559 4.815824 17.083418
-1.258972 4.838904 16.098461
-3.779428 3.273519 16.234905
-3.185293 -3.854077 9.258852
4.807507 1.374001 13.355565
3.767606 3.287118 0.840367
1.619361 4.730504 15.128452
0.127516 4.998374 5.169467
-4.721515 -1.645386 7.495684
0.585324 -4.965621 1.175708
3.546135 3.524901 15.783910
3.259886 3.791193 18.889656
-4.657761 1.818038 0.466388
4.565426 2.038844 6.114729
4.996217 0.194469 10.202579
4.960528 0.627028 19.977289
3.771583 -3.282554 18.743358
1.650690 4.719663 6.776201
-0.294998 4.991290 0.827291
-2.096247 -4.539355 5.137778
-0.196589 4.996134 6.572757
3.605317 -3.464346 19.381003
-1.784080 4.670873 6.043178
4.999872 0.035781 1.867277
-1.156501 -4.864412 14.332529
-0.853481 4.926618 12.092446
4.346561 2.471317 18.174793
4.131805 2.815704 11.916491
3.074781 -3.942807 10.054923
2.104307 4.535625 15.465443
-3.139461 -3.891502 3.650690
-4.150384 2.788245 0.616733
1.678768 4.709749 0.619771
0.933633 4.912060 7.611944
4.781908 1.460601 7.463997
-0.663675 4.955758 10.711898
-3.509414 -3.561463 10.392074
3.566010 -3.504792 3.009765
2.587553 4.278384 8.798843
-4.743700 -1.580289 5.769414
-4.276191 -2.591176 0.322701
0.912366 4.916054 1.249526
4.346705 -2.471064 4.476276
-2.240986 -4.469674 16.103517
-4.195231 -2.720300 15.950580
4.944630 0.742047 19.815481
2.703316 -4.206196 11.419309
1.823617 4.655579 5.025646
-1.556315 -4.751619 18.517243
-4.423869 -2.330104 11.805747
2.674698 4.224452 12.550021
-4.633372 -1.879326 2.388076
-0.322546 4.989586 7.059194
4.994587 -0.232605 5.456588
4.526400 -2.124078 15.461103
0.437246 -4.980845 15.509478
-3.671835 3.393763 15.607335
-4.156917 2.778497 3.601685
-2.110574 4.532712 4.738074
3.956982 -3.056517 19.914422
4.486627 2.206847 2.800475
2.948280 4.038272 11.121147
-3.587245 3.483055 2.733429
4.606684 1.943827 2.156146
-0.745369 4.944130 3.626030
-2.941271 -4.043381 1.797460
4.421732 2.334157 6.405592
-3.174678 -3.862826 0.555030
-2.440942 -4.363692 6.164070
-4.379148 2.413103 11.189560
-4.153960 2.782916 11.485450
-2.892009 -4.078760 7.778105
2.714324 4.199100 11.358472
-4.997394 -0.161412 2.028295
-4.905418 -0.967922 1.229512
-3.624841 3.443912 1.888622
-0.155771 -4.997573 3.668382
4.978110 0.467351 4.309017
-4.711815 1.672962 10.558910
-4.992805 0.268140 4.689511
-3.267299 -3.784806 11.453243
3.652832 -3.414209 16.412238
4.968338 -0.561798 19.537071
-4.988743 0.335332 4.712213
2.581688 -4.281926 5.715757
3.979140 -3.027614 4.473346
4.881191 1.083501 14.086024
4.991950 -0.283603 4.632140
-4.996919 0.175500 1.055690
-4.887035 1.056830 12.384040
4.933752 0.811231 4.148743
-2.612766 -4.263033 7.719070
4.170591 -2.757929 10.895855
-2.032764 4.568137 3.565504
3.125950 3.902363 1.455462
-2.583725 4.280697 15.803127
-0.348213 4.987860 3.824748
2.902705 4.071155 4.101772
0.662431 -4.955924 9.471190
4.529349 -2.117780 19.910430
0.038440 4.999852 7.023680
-3.219733 3.825353 4.446569
-3.513059 3.557867 18.536309
-4.284563 -2.577308 15.424596
3.245455 3.803554 15.429567
-3.517772 3.553207 16.091298
4.681348 -1.756412 14.386370
3.258157 -3.792679 17.486988
4.714370 1.665749 15.678203
-2.453752 -4.356501 19.839447
-4.564620 -2.040648 8.060257
3.339780 -3.721004 7.155349
3.611874 -3.457509 11.312254
-0.353258 4.987505 12.040596
2.140624 -4.518598 15.931671
4.633806 1.878255 12.717968
2.600830 4.270326 19.724722
1.045751 4.889418 4.033836
-2.970339 -4.022075 10.223054
4.696135 -1.716484 17.362954
0.790006 -4.937195 15.201602
-3.478640 3.591526 3.948939
4.822561 -1.320193 16.517283
4.134065 2.812385 13.886447
-2.792105 4.147789 1.457574
4.549015 -2.075203 3.067220
3.069854 -3.946644 19.826089
0.514439 -4.973465 4.468563
2.739085 -4.182991 0.081500
-4.502858 -2.173538 1.032451
-3.563480 -3.507365 0.049499
-4.830589 -1.290508 19.960410
4.824482 -1.313155 6.257565
0.963915 4.906207 10.471223
-0.890290 4.920100 15.781235
4.996055 0.198592 6.557285
2.146088 4.516006 9.964702
0.215937 4.995335 16.723539
-4.907172 0.958988 8.219812
-2.712657 4.200178 7.114255
-1.770633 -4.675988 9.344279
-4.941682 -0.761431 10.658203
-0.547554 4.969928 15.825527
-1.983539 4.589725 9.743639
4.692476 1.726460 6.715237
-1.291147 -4.830418 3.310706
-4.857074 -1.186944 7.749336
2.980787 4.014338 11.866035
3.058894 3.955145 4.084599
2.900923 -4.072425 15.230885
-4.910395 0.942350 5.811565
-0.882109 4.921573 1.717099
-4.998798 -0.109651 3.651207
0.759676 4.941952 6.397523
-4.999791 -0.045696 8.659550
-2.258013 -4.461096 10.749513
3.698559 -3.364619 10.317584
1.054561 -4.887525 18.955645
2.302860 -4.438112 6.065661
3.437229 3.631179 8.870035
-3.631121 3.437289 5.812054
3.424092 -3.643569 0.743369
-4.996297 -0.192400 17.961961
4.074194 2.898438 6.339938
-3.763314 3.292030 16.192669
-4.439532 -2.300121 4.931415
4.253458 2.628326 12.848947
-4.940151 -0.771300 19.708883
-0.478911 4.977012 10.447275
1.418629 4.794527 15.465542
-1.465734 4.780337 11.762801
4.970067 -0.546294 3.003892
2.988926 4.008281 2.897415
-4.003903 -2.994790 15.950718
-3.850844 -3.189201 9.976946
-4.015543 -2.979163 14.084918
-4.353948 -2.458280 8.525275
-4.060695 -2.917320 4.875708
3.035048 3.973472 9.844671
-4.829400 1.294949 12.175545
-4.993724 0.250448 7.614185
-4.884040 -1.070587 17.250665
-3.327964 -3.731576 12.394896
-4.919628 0.892895 6.753207
-2.418309 -4.376275 18.989846
0.693986 -4.951604 4.257428
-2.550862 4.300361 11.201593
-1.546613 -4.754786 12.048252
4.997066 -0.171267 11.431281
-3.992183 3.010395 15.725838
-4.935539 0.800287 4.389663
4.946056 0.732482 11.069864
-1.403198 -4.799066 18.666912
4.702421 -1.699188 18.227764
4.002318 -2.996907 15.787167
0.141551 -4.997996 13.022993
-1.258763 4.838958 5.237786
-4.566053 2.037439 7.634672
-4.900994 0.990082 9.150160
-3.446034 -3.622823 12.012863
-3.895657 3.134303 4.314017
-4.453906 -2.272161 3.957743
-4.714681 1.664867 19.211416
-4.406833 -2.362164 3.598594
-3.200059 3.841826 18.161173
0.010535 -4.999989 4.243393
4.778575 -1.471470 19.169632
3.039863 -3.969790 19.801954
0.160997 4.997407 16.932357
4.915500 -0.915349 0.396225
-4.890273 1.041743 15.890458
1.918239 -4.617397 8.701482
1.779098 4.672773 9.163359
-2.219709 4.480278 15.047896
4.879655 -1.090396 4.854689
3.106686 -3.917717 7.446661
1.832619 -4.652043 3.459075
-4.891994 1.033633 3.896971
3.769350 -3.285118 8.791143
-0.548165 4.969861 19.158039
-4.242679 2.645691 15.082511
4.820592 -1.327362 3.051886
4.923306 0.872384 9.497216
-3.539501 -3.531563 0.264759
4.721910 1.644252 10.772659
-4.523437 2.130380 3.130215
4.982910 -0.413043 14.211616
1.543414 4.755825 11.388549
4.983188 -0.409677 19.164764
-2.201998 4.489009 13.968278
3.261351 -3.789933 18.347008
1.379862 4.805828 5.846540
3.913289 -3.112261 8.089890
3.521131 -3.549878 8.274326
3.025330 3.980876 6.120395
-4.659879 1.812601 7.303175
0.614928 -4.962042 0.163135
-2.655820 4.236345 11.324783
-4.970355 0.543663 0.722724
-1.820890 4.656647 11.024916
-1.100167 -4.877462 3.527042
-2.582084 4.281687 8.362642
3.944926 3.072062 10.960418
-2.793048 4.147153 17.939070
-3.554976 -3.515984 7.004814
-3.598850 3.471063 1.859136
-0.439271 4.980667 9.105917
4.669327 -1.788123 11.697040
-4.432426 -2.313785 10.104405
-3.742428 3.315756 14.219980
-2.856112 4.103977 9.001507
3.492233 -3.578311 15.637538
-1.757695 4.680866 7.478008
4.999955 0.021327 10.972410
4.291866 2.565129 10.112807
-2.162694 -4.508076 0.443330
-4.561061 2.048591 9.534716
-3.407867 -3.658749 19.687000
-4.512986 -2.152431 11.036424
-2.062380 4.554843 16.347680
4.691915 1.727985 19.680886
-4.995524 0.211512 3.154660
-1.882753 -4.631980 12.702268
3.095706 -3.926399 16.135930
-4.698569 1.709809 7.077729
-3.840653 3.201466 1.306656
-0.864591 4.924681 10.696978
4.995475 0.212681 2.837773
-2.376521 -4.399108 10.546458
-0.100475 -4.998990 18.555765
4.305456 2.542252 12.331532
-0.780909 -4.938642 10.375149
3.581871 3.488582 18.584132
4.636650 1.871222 17.502592
4.835352 -1.272546 4.987174
4.474168 2.231998 10.671331
3.167783 -3.868482 7.201969
-4.390687 -2.392043 10.399535
-2.548167 -4.301958 8.879791
4.876040 -1.106450 10.369611
3.318066 3.740379 16.465649
-1.538559 4.757398 6.414376
1.459374 4.782283 16.747183
-3.315620 -3.742547 13.193249
4.154752 -2.781732 2.172908
-4.987801 -0.349051 16.645397
3.717064 3.344165 12.257015
-1.176462 -4.859623 18.400448
-1.358313 4.811963 12.821898
-4.669573 -1.787481 18.380705
-0.316972 -4.989943 5.653874
-3.286250 -3.768363 10.967033
4.914797 -0.919116 4.840275
4.856043 1.191153 1.592986
0.021126 -4.999955 7.869848
0.072462 4.999475 13.057648
1.956697 -4.601232 10.701623
-4.844566 -1.237003 5.993178
-0.365864 -4.986596 12.971763
-0.423753 -4.982011 2.533087
-2.354105 4.411144 15.525723
2.186731 4.496466 3.883374
-0.807719 4.934328 16.312893
1.319956 -4.822625 12.606762
-3.646485 -3.420986 15.224094
-0.339042 -4.988492 3.676819
0.876494 -4.922576 17.012063
1.473860 4.777838 11.544094
-1.612021 4.733011 16.191840
2.129731 4.523743 8.164406
2.273886 4.453026 10.990003
2.910341 -4.065700 7.534429
4.470572 -2.239193 7.854329
-2.612973 4.262907 0.859747
-4.237751 -2.653576 5.939865
3.670338 -3.395382 2.703385
-0.134103 -4.998201 18.160774
4.831903 1.285580 7.636878
-2.593227 -4.274947 7.203385
-4.115324 -2.839738 19.397387
-4.997042 -0.171972 5.548377
-3.340624 -3.720246 10.721804
4.634778 1.875855 0.669056
2.553285 -4.298922 14.184662
-4.289349 2.569336 14.060829
4.927496 0.848402 19.226129
3.650775 -3.416408 5.037692
4.260399 2.617060 10.837411
-4.872741 1.120890 12.302977
2.999628 -4.000279 6.262679
4.609548 -1.937026 1.932174
-2.717774 -4.196869 18.521712
-4.819534 1.331198 2.408613
-4.578079 2.010272 13.933495
3.872447 3.162935 8.236572
4.952505 0.687530 7.352462
-2.563455 4.292866 7.170225
4.964014 0.598803 14.270775
4.577400 2.011817 18.047237
-4.918656 0.898231 3.765104
4.141530 -2.801381 2.177532
-4.326524 -2.506231 15.108916
4.552668 -2.067176 2.427317
-4.127539 -2.821953 7.823547
2.183653 4.497962 18.408176
4.221348 2.679594 6.818245
3.607461 3.462113 7.813638
4.305609 -2.541993 2.400849
-0.733070 4.945969 10.027217
4.836789 -1.267071 10.459545
-3.662123 3.404241 7.582306
0.858228 -4.925794 3.655093
-1.471155 4.778672 3.073477
-4.546394 -2.080939 6.704258
-3.339500 3.721255 16.522154
-3.109855 -3.915201 4.869894
3.742427 3.315756 12.698052
0.753386 4.942915 1.779085
-4.515846 2.146423 9.983490
4.375876 -2.419031 5.439634
-4.752358 -1.554057 16.074452
-4.997203 -0.167208 17.600561
-0.980929 -4.902834 9.727168
0.991315 4.900744 0.664686
-1.943699 -4.606738 6.854644
2.512474 -4.322901 8.089648
3.945717 -3.071045 19.061407
3.228444 3.818003 12.913323
-2.842743 -4.113248 7.378685
1.643887 -4.722037 10.373359
2.620549 -4.258253 5.810694
1.339213 4.817313 9.410696
-0.621017 -4.961284 2.346553
1.831909 -4.652323 15.767682
4.723419 -1.639912 0.592908
3.081587 -3.937489 5.773922
-0.934997 4.911800 11.263275
3.592237 -3.477907 10.619232
3.718899 -3.342123 15.685296
2.360124 -4.407926 8.840269
2.201689 -4.489161 19.171581
3.921076 -3.102445 8.715110
3.331298 -3.728600 15.481294
0.734502 -4.945757 11.095972
-3.868460 -3.167809 19.385883
-4.993655 0.251821 12.609855
3.199588 3.842218 7.243250
-4.773656 1.487350 17.911673
4.919139 -0.895585 8.847504
-2.988986 -4.008236 19.040721
-2.449763 -4.358746 8.210827
1.661559 4.715848 0.145365
1.717527 -4.695753 10.970239
-4.649930 1.837976 19.812968
-3.487237 -3.583180 11.327233
-0.861285 4.925260 19.433882
2.233742 -4.473298 11.201993
-4.694999 1.719588 0.379520
0.580671 4.966168 9.340032
-1.967115 4.596788 8.759586
4.969918 -0.547648 19.483243
4.999905 -0.030868 16.414876
-3.281337 3.772642 15.750276
4.590773 1.981111 8.110475
-3.103951 3.919883 1.774833
3.574741 -3.495887 5.732765
-0.890790 4.920010 6.196947
2.095664 4.539625 16.487323
-1.556494 4.751561 4.501677
-4.764777 1.515554 10.624939
4.998382 0.127179 10.178825
-3.269842 3.782609 4.027186
4.861514 1.168624 13.746251
3.335534 3.724810 18.822131
-4.600366 -1.958732 6.828352
4.951519 -0.694592 8.546148
4.039951 2.945979 4.645311
-0.573990 4.966944 6.386147
4.822136 1.321745 8.167484
3.806125 -3.242439 9.854749
1.123599 -4.872117 15.646864
-2.024328 4.571881 5.965861
2.962519 -4.027838 12.714031
-4.998102 -0.137754 0.557117
-0.416321 4.982638 18.223389
4.338528 -2.485391 1.741306
4.774245 1.485458 9.265923
-0.159481 4.997456 0.132639
-0.503140 4.974621 14.918351
-3.984173 -3.020987 14.544958
-3.941767 3.076113 11.674767
-2.260896 4.459635 10.905928
-0.383215 4.985293 3.752750
-4.198891 2.714649 18.391642
-0.611549 -4.962460 4.940790
2.363971 4.405865 17.518219
3.868528 3.167726 11.067992
-4.939435 -0.775876 18.752192
-2.407913 4.382004 17.865629
-3.890529 -3.140666 18.977404
1.863290 4.639844 14.337539
-4.760660 -1.528435 9.761012
-1.793339 4.667326 5.147536
-2.267675 -4.456192 16.315107
0.869444 4.923826 10.831040
-3.742426 3.315757 7.935966
-4.999737 0.051251 7.044565
-3.080401 -3.938418 15.670255
-3.289533 3.765497 8.204914
-4.950674 -0.700592 9.246517
-4.937765 0.786432 4.688198
2.297444 4.440918 7.652118
-0.207667 4.995686 11.283863
4.711451 1.673985 8.471199
-4.453164 2.273616 0.071591
-4.817359 -1.339047 1.230385
-2.908449 -4.067053 1.244366
2.431742 4.368825 19.063129
-4.809590 1.366691 1.210729
-0.120888 -4.998538 3.091617
-3.340383 3.720463 3.306773
3.083702 -3.935833 14.223304
0.129615 4.998320 11.325046
1.814325 4.659208 13.402841
4.997553 -0.156423 12.065791
0.604995 -4.963263 15.484304
4.999984 -0.012832 2.742148
3.077487 3.940695 10.062136
3.952143 3.062771 10.228611
-0.257300 -4.993375 11.885677
-3.924774 -3.097765 13.253681
-3.642127 -3.425626 7.530131
4.836734 1.267281 7.008329
-4.953255 -0.682104 7.929198
1.846569 -4.646524 19.242507
1.537052 -4.757885 4.011056
4.413259 2.350138 9.848542
4.178659 -2.745688 13.260938
2.867113 -4.096299 6.137126
3.348399 -3.713250 11.411063
-4.769491 -1.500650 5.246062
0.731834 -4.946152 15.353198
-2.992126 -4.005893 17.399435
-3.415172 3.651931 15.631783
1.246233 4.842200 12.183602
4.988698 0.335997 4.480461
-1.076412 4.882759 18.487732
4.992035 0.282105 17.249647
3.765619 -3.289394 6.172041
-2.078118 4.547684 8.859930
2.819648 4.129115 13.698247
-4.912428 0.931694 6.324487
4.942250 -0.757736 2.196435
-4.967623 0.568084 16.021806
-0.138945 4.998069 10.905667
-2.740332 4.182174 8.518171
4.353311 -2.459407 3.115503
2.988543 4.008567 11.732668
-4.136688 -2.808524 3.786937
4.593812 -1.974055 8.303756
1.724965 4.693026 4.054767
4.999938 0.024926 5.666073
-4.597508 -1.965432 9.236583
3.674212 3.391190 6.034372
-2.852788 -4.106288 15.814052
